# .PCD v0.7 - Point Cloud Data file format
VERSION 0.7
FIELDS x y z
SIZE 4 4 4
TYPE F F F
COUNT 1 1 1
WIDTH 1490
HEIGHT 1
VIEWPOINT 0 0 0 1 0 0 0
POINTS 1490
DATA ascii
-0.69606674 0.38823664 -1.6549001
-0.68546671 0.38755333 -1.6544666
-0.67510003 0.38837716 -1.6537715
-0.66434336 0.38810503 -1.6543502
-0.65551162 0.38775501 -1.6540668
-0.64381599 0.38900599 -1.65478
-0.63450831 0.38821 -1.6535833
-0.62454581 0.38795432 -1.6529858
-0.61508167 0.3883867 -1.65435
-0.6041075 0.38768253 -1.6531501
-0.59470004 0.38813716 -1.6537715
-0.58498168 0.38832831 -1.6540835
-0.57613671 0.38839668 -1.6544001
-0.56486255 0.38691249 -1.6517251
-0.55510002 0.38736004 -1.6536001
-0.54648674 0.3875367 -1.6543669
-0.53546286 0.38814861 -1.6538287
-0.52552497 0.38678002 -1.652975
-0.51639664 0.38673502 -1.6534166
-0.50405002 0.38770249 -1.6541625
-0.49468142 0.38814858 -1.6538571
-0.48588747 0.38703001 -1.6540749
-0.47419402 0.38773999 -1.65378
-0.46518859 0.38673002 -1.6530286
-0.45425901 0.38693997 -1.6532999
-0.44498667 0.38742003 -1.6539001
-0.43439373 0.38751376 -1.6542749
-0.42569751 0.38773 -1.653375
-0.41515252 0.3874175 -1.6538751
-0.40497336 0.38708669 -1.6524667
-0.39509889 0.38817558 -1.6546445
-0.38462144 0.38657001 -1.6534144
-0.37517834 0.38705334 -1.6535333
-0.36419749 0.38699001 -1.65205
-0.35531801 0.38679799 -1.6541601
-0.34514999 0.38765252 -1.6549
-0.3356975 0.38665751 -1.652475
-0.32555249 0.38747001 -1.6540999
-0.31544 0.38722575 -1.6540999
-0.30626604 0.38654003 -1.65306
-0.29431 0.38641712 -1.6527429
-0.28594202 0.38672 -1.6538401
-0.27562252 0.38630497 -1.6528125
-0.26546001 0.38692719 -1.6549143
-0.25423202 0.38846201 -1.6553801
-0.24557875 0.38665375 -1.6542875
-0.23695002 0.38680401 -1.6527199
-0.13231501 0.38766998 -1.6513
-0.12623374 0.38673252 -1.6527876
-0.11488429 0.38643429 -1.6528286
-0.10519334 0.38631499 -1.65285
-0.095688872 0.38672876 -1.6546
-0.085278891 0.38621667 -1.6536444
-0.075324006 0.38639998 -1.6532001
-0.066369429 0.38687575 -1.6547
-0.054346718 0.38671574 -1.6540143
-0.044644002 0.38641718 -1.6537859
-0.035264004 0.38696 -1.6550858
-0.024396898 0.38642201 -1.6554899
-0.01515 0.38611877 -1.6538249
-0.0060576289 0.38746005 -1.6551
0.0057124002 0.38725147 -1.6562999
0.015880374 0.38615873 -1.6539999
0.02415725 0.38639501 -1.655
0.034843799 0.38733202 -1.6549801
0.0452624 0.38702801 -1.6551399
0.054200251 0.38659623 -1.6540376
0.065807864 0.38680145 -1.6544001
0.074834168 0.38667506 -1.6543665
0.084501997 0.38674623 -1.654675
0.09537001 0.38644877 -1.6534123
0.10482001 0.38608336 -1.6518334
0.1147875 0.38659376 -1.6540376
0.12465778 0.38575557 -1.653289
0.13484715 0.38681141 -1.6544288
0.14526375 0.38652998 -1.6537625
0.15527001 0.38690001 -1.6553167
0.16546503 0.38622302 -1.6546201
0.17544858 0.38653001 -1.6542716
0.18486141 0.38651288 -1.6531428
0.19498181 0.38529366 -1.6527545
0.20454334 0.38611555 -1.6539778
0.21500286 0.38672572 -1.6551287
0.22469144 0.38694146 -1.6550001
0.23478144 0.38666001 -1.6548287
0.24495125 0.38653249 -1.6546626
0.25503555 0.38635889 -1.6542555
0.26517835 0.38660666 -1.6540668
0.2748214 0.38670003 -1.6550144
0.28468144 0.38692576 -1.6549286
0.29399669 0.38665664 -1.6542834
0.30462891 0.38724113 -1.6555667
0.31518003 0.38660005 -1.6545857
0.32531443 0.38624445 -1.6545445
0.33543 0.38646287 -1.654
0.34544289 0.38666287 -1.6538001
0.35524333 0.38665503 -1.6543
0.36530447 0.38721111 -1.6537999
0.37502429 0.38695142 -1.6539859
0.38577572 0.38658574 -1.6545142
0.39452145 0.38567716 -1.6526856
0.40477121 0.38699999 -1.6557875
0.41432801 0.38690799 -1.6546398
0.42197499 0.387225 -1.6530499
-0.77140498 0.39026499 -1.655
-0.76986998 0.39035001 -1.659
-0.74261498 0.39201 -1.6587
-0.73653668 0.39078999 -1.6584333
-0.71512997 0.39008 -1.6579
-0.70740497 0.39179501 -1.65785
-0.69316 0.39007002 -1.6578
-0.68563497 0.39023501 -1.6585
-0.67658001 0.39203501 -1.65885
-0.66855001 0.39021999 -1.6585
-0.65289003 0.39006001 -1.6578
-0.63352501 0.39203 -1.65885
-0.62606001 0.39212999 -1.6592
-0.61021 0.39001 -1.6576
-0.60627997 0.39124748 -1.6591749
-0.58082998 0.39212 -1.6592
-0.57488334 0.39159 -1.6594
-0.56564003 0.39026332 -1.6586335
-0.55679333 0.39030668 -1.6588334
-0.54523337 0.39052004 -1.6597335
-0.53024 0.39030001 -1.6588
-0.52343667 0.39087671 -1.6588001
-0.51880997 0.39054 -1.6598001
-0.485854 0.39055201 -1.65844
-0.46343499 0.390315 -1.6589
-0.45763999 0.39026999 -1.6587
-0.4446075 0.39012751 -1.6580249
-0.43553501 0.39157501 -1.658725
-0.42342335 0.39035332 -1.6590335
-0.41301998 0.39092335 -1.6590002
-0.40639669 0.39036334 -1.6590667
-0.39644 0.39194 -1.6584499
-0.38365334 0.39019334 -1.6583333
-0.37509 0.39004499 -1.6576999
-0.36682999 0.39026001 -1.65865
-0.34149 0.39006001 -1.6578
-0.33467752 0.390295 -1.6588
-0.32494003 0.39032 -1.6589
-0.31461668 0.39011666 -1.6580334
-0.30535334 0.3901 -1.6579666
-0.27369499 0.39041501 -1.6593
-0.26267999 0.39046001 -1.6595
-0.25565499 0.39016998 -1.65825
-0.246115 0.390385 -1.6592
-0.237795 0.39103502 -1.6582501
-0.13248999 0.39184001 -1.658
-0.12703 0.39023 -1.6585
-0.11204 0.390275 -1.6587
-0.10795 0.39028001 -1.6587
-0.015160333 0.39041337 -1.6592668
-0.0069309501 0.39050001 -1.65965
0.01226 0.39056 -1.6599
0.036885999 0.39035001 -1.659
0.082384497 0.39046001 -1.6594501
0.096198499 0.39043 -1.6593499
0.1156125 0.39043 -1.6593499
0.12538667 0.39050335 -1.6596668
0.16166 0.39046001 -1.6595
0.18689001 0.39039001 -1.6592
0.19251999 0.39038 -1.6592
0.20818 0.39052001 -1.6596999
0.22953001 0.39058 -1.66
0.23792 0.39041001 -1.6593
0.24086 0.39050001 -1.6596
0.25808999 0.39056 -1.6599
0.26514 0.390425 -1.6593499
0.27389002 0.39054501 -1.65985
0.28674999 0.39041999 -1.6593
0.29813999 0.39024001 -1.6586
0.30247501 0.39023 -1.6585
0.34814 0.39048001 -1.6596
0.35113999 0.39052999 -1.6598001
0.38572332 0.39047667 -1.6595668
0.406115 0.390405 -1.65925
0.41658503 0.39116499 -1.6588
0.42267001 0.39118999 -1.6589
0.825041 0.36495802 -1.6414801
0.83142 0.36620501 -1.6408501
-0.77083999 0.37935001 -1.641
-0.51924002 0.37959 -1.642
-0.50178999 0.37948 -1.6416
-0.49492335 0.37933335 -1.6409334
-0.48456001 0.37946332 -1.6415
-0.47852999 0.37918001 -1.6403
-0.44440001 0.37915 -1.6402
-0.43031001 0.37915999 -1.6402
-0.4249267 0.37942001 -1.6413333
-0.415095 0.37941998 -1.6413
-0.39555749 0.37949753 -1.6416501
-0.38441497 0.37951499 -1.6417251
-0.37740999 0.37946001 -1.6415
-0.353755 0.37936002 -1.64105
-0.34678 0.37927669 -1.6407001
-0.33301499 0.37931001 -1.6408
-0.32747999 0.37926999 -1.6407
-0.31387669 0.37948334 -1.6415666
-0.30557668 0.3793633 -1.6410999
-0.28245503 0.37961501 -1.6421499
-0.27419749 0.37949252 -1.6416249
-0.26455337 0.37928337 -1.6407001
-0.25551337 0.37934333 -1.641
-0.24004 0.37915999 -1.6402
-0.1253075 0.37929749 -1.6408
-0.114555 0.37956002 -1.641925
-0.1051275 0.37909499 -1.6418501
-0.095699996 0.37958002 -1.642
-0.088968001 0.37952 -1.6418
-0.071447998 0.37970501 -1.64255
-0.064195596 0.37876996 -1.6416
-0.056117203 0.37906405 -1.6413201
-0.044105336 0.37924334 -1.6406001
-0.035057001 0.37962002 -1.6421666
-0.026962001 0.37961668 -1.6422
-0.015256666 0.3796367 -1.6422666
-0.0053396667 0.37966332 -1.6423668
0.0041478951 0.37973499 -1.6427
0.014009501 0.37896335 -1.6419166
0.0283655 0.37928 -1.6407
0.033874497 0.37951499 -1.64175
0.046156332 0.37968335 -1.6424665
0.05560175 0.37952 -1.6417249
0.063834496 0.37967002 -1.6424
0.074799247 0.37980002 -1.642975
0.082912505 0.37965 -1.6423
0.097719997 0.37755001 -1.6409
0.10336 0.3786875 -1.642
0.11449 0.3798067 -1.6430334
0.122545 0.37867001 -1.64195
0.13642667 0.37970334 -1.6425333
0.14461002 0.37956667 -1.6420001
0.1557 0.37963003 -1.6422
0.162765 0.37981999 -1.64305
0.17506 0.37957001 -1.6419667
0.18483999 0.37963247 -1.6422501
0.19432333 0.37931332 -1.6408333
0.20367001 0.3788 -1.6412001
0.21156999 0.37986001 -1.6432
0.224944 0.37941 -1.64282
0.23523499 0.37961 -1.64215
0.24379501 0.379715 -1.64255
0.25814998 0.37990999 -1.6434
0.26489002 0.37955338 -1.6419334
0.27173501 0.37930501 -1.6408501
0.28483668 0.37955666 -1.6419001
0.29430002 0.37948334 -1.6416
0.31371999 0.37970501 -1.64255
0.32502002 0.37948501 -1.6416
0.33241498 0.37961 -1.6421499
0.344145 0.37968498 -1.6425
0.35561502 0.37952501 -1.6417501
0.36589 0.37954003 -1.6417999
0.376335 0.37965 -1.64235
0.38380668 0.37972003 -1.6426001
0.39359003 0.37908667 -1.6424665
0.40448666 0.37965667 -1.6423334
0.41329667 0.37955999 -1.6419334
0.80874997 0.37458 -1.6439
0.81643325 0.37523776 -1.6430334
0.82334995 0.37343603 -1.6417201
-0.77114004 0.38270664 -1.6434667
-0.7641986 0.38315147 -1.6450001
-0.75474715 0.38276428 -1.6454288
-0.74560398 0.38339803 -1.6469201
-0.73443383 0.38288125 -1.6445
-0.72446507 0.38238832 -1.6432832
-0.71465784 0.38377336 -1.6464001
-0.70532721 0.38329285 -1.6456144
-0.69494003 0.38330168 -1.6447666
-0.68487334 0.38371 -1.6453667
-0.67476571 0.38304433 -1.6455858
-0.66469336 0.38280171 -1.6450833
-0.655958 0.38272804 -1.64548
-0.64424431 0.38377431 -1.6455715
-0.63562167 0.38271165 -1.6446834
-0.62601721 0.38304001 -1.6455858
-0.61529857 0.38254148 -1.6444715
-0.6054284 0.38263667 -1.6443501
-0.59518874 0.38278502 -1.645
-0.58494169 0.38290334 -1.6454835
-0.57536578 0.38313431 -1.6459715
-0.56501573 0.38274142 -1.6453288
-0.55471718 0.38312715 -1.6459429
-0.54425573 0.38258001 -1.6446427
-0.53441286 0.38328001 -1.6466001
-0.52411836 0.38253504 -1.6451167
-0.51396251 0.38260001 -1.646
-0.50586671 0.38302502 -1.6472334
-0.49449998 0.38302836 -1.6460335
-0.48479503 0.38292167 -1.6455668
-0.47483 0.38255575 -1.6445429
-0.46660998 0.38269499 -1.646425
-0.45499748 0.38140249 -1.6426749
-0.44459003 0.38314503 -1.6465499
-0.43627802 0.38257402 -1.6462601
-0.4254286 0.38331285 -1.6467572
-0.41575143 0.38308004 -1.6467859
-0.40499875 0.383075 -1.6462501
-0.39550334 0.38345835 -1.6478834
-0.38510251 0.3819325 -1.64495
-0.37403333 0.38317168 -1.6478666
-0.36442003 0.38301834 -1.6459999
-0.35460168 0.38262999 -1.6455333
-0.34519833 0.38332164 -1.6473168
-0.33529717 0.38319716 -1.6472858
-0.32455122 0.38349497 -1.6480374
-0.31407249 0.38289252 -1.647275
-0.30403835 0.38274503 -1.64605
-0.296105 0.38275498 -1.646675
-0.28471202 0.38216397 -1.6445
-0.27485251 0.38236502 -1.6468501
-0.26379502 0.38253498 -1.645725
-0.25516286 0.38314003 -1.6470429
-0.24490251 0.38262501 -1.6479499
-0.23631501 0.38161498 -1.6436
-0.13216999 0.38295501 -1.6457
-0.12517601 0.38290802 -1.6477002
-0.11434801 0.38267201 -1.6467001
-0.10515334 0.38231 -1.6465667
-0.095695004 0.382525 -1.6474751
-0.083540343 0.38222668 -1.6462001
-0.074087001 0.38214248 -1.6458499
-0.063910998 0.38301498 -1.6477749
-0.055960204 0.382664 -1.6466401
-0.044322751 0.38237751 -1.64685
-0.034871999 0.38225669 -1.6463666
-0.025911 0.38141999 -1.6451
-0.013171667 0.38240668 -1.6469667
-0.0043566502 0.38280249 -1.646875
0.0037120357 0.38295001 -1.64788
0.014107667 0.38284668 -1.6488667
0.025498001 0.38194001 -1.64675
0.0350255 0.38275626 -1.6466625
0.04385617 0.38230336 -1.6465499
0.054856669 0.38252336 -1.6474667
0.06445501 0.38260669 -1.6478333
0.075408496 0.38262248 -1.647925
0.085036665 0.38269669 -1.6482334
0.095381007 0.381845 -1.6469667
0.10530834 0.38159832 -1.6459001
0.11503001 0.38229001 -1.6464666
0.12659203 0.381318 -1.6466401
0.133635 0.38187751 -1.646525
0.14430249 0.38270998 -1.6482999
0.15457402 0.38240403 -1.6483999
0.16510999 0.38189501 -1.6484001
0.17386799 0.38217202 -1.6474199
0.18450999 0.38253331 -1.6475667
0.2081525 0.38155001 -1.6469001
0.21587002 0.38185799 -1.6475201
0.2249625 0.3822675 -1.6464
0.23471001 0.38213 -1.6458
0.24560499 0.382025 -1.647175
0.25466251 0.38146001 -1.646525
0.26473501 0.38236752 -1.64685
0.27616999 0.38147798 -1.64586
0.28506249 0.38265997 -1.6480999
0.29519665 0.38272667 -1.6483667
0.30538288 0.38159004 -1.6465572
0.315135 0.38209501 -1.64745
0.325055 0.38150498 -1.6467251
0.33611748 0.38202748 -1.6471748
0.34467599 0.38175201 -1.64704
0.35393202 0.381984 -1.64662
0.36462498 0.38279 -1.6468251
0.374955 0.38239247 -1.646925
0.38559002 0.3825967 -1.6478
0.39490002 0.38111669 -1.6462334
0.40521997 0.3827925 -1.6486501
0.41555402 0.382916 -1.6462799
0.42143002 0.38147002 -1.64438
0.81685501 0.38880998 -1.6452
0.82232398 0.38633999 -1.6419801
-0.78223002 0.36862999 -1.6327
0.81746 0.36675501 -1.63555
0.82623714 0.36658719 -1.6355287
0.83403367 0.36547551 -1.6358728
0.8414343 0.36534432 -1.6332002
0.85095 0.36480999 -1.6307
-0.78223002 0.37024 -1.6323
-0.7720933 0.37498337 -1.6325001
-0.76485002 0.37742144 -1.6359857
-0.75423801 0.37666801 -1.6340001
-0.74528432 0.37738144 -1.6358286
-0.73394287 0.37685287 -1.6346
-0.72495204 0.377516 -1.6361599
-0.71553433 0.37705144 -1.6354573
-0.70488667 0.37692499 -1.6343668
-0.69512576 0.3772772 -1.6353573
-0.68468332 0.376845 -1.6340168
-0.67508572 0.37687287 -1.6346859
-0.66486007 0.37752429 -1.6364001
-0.6547367 0.37719333 -1.6355333
-0.64502996 0.37709001 -1.6356428
-0.63487571 0.37772861 -1.6373001
-0.62513673 0.37755835 -1.6371168
-0.61531377 0.37610373 -1.6337875
-0.60558641 0.37621906 -1.6345454
-0.59466833 0.37711835 -1.6352167
-0.58531994 0.3771086 -1.6357143
-0.57484287 0.37738431 -1.6358
-0.56490499 0.37603 -1.6344299
-0.55501556 0.37642336 -1.6344
-0.54414284 0.37642148 -1.6338859
-0.53501141 0.37666431 -1.6337571
-0.52433664 0.37684003 -1.6353222
-0.5149563 0.37591249 -1.6349249
-0.50650573 0.37668142 -1.635
-0.494984 0.376708 -1.6357399
-0.48483834 0.37531668 -1.6339
-0.47420603 0.37734398 -1.63696
-0.46484333 0.37659666 -1.6351779
-0.455587 0.37593803 -1.6340503
-0.44522601 0.37628901 -1.6355799
-0.43510303 0.37583998 -1.6344198
-0.42502573 0.37496573 -1.6331857
-0.41510144 0.37620148 -1.6351858
-0.404515 0.37622198 -1.63527
-0.39470571 0.37536862 -1.6349286
-0.3850657 0.37497574 -1.6343858
-0.37422165 0.37724334 -1.63705
-0.36461499 0.37646601 -1.63556
-0.355975 0.37557125 -1.6344124
-0.34367859 0.37574571 -1.6343001
-0.33551893 0.37596002 -1.6359112
-0.32445404 0.375541 -1.6339
-0.31574574 0.37614286 -1.6360286
-0.30510718 0.37459716 -1.632743
-0.29511416 0.37612838 -1.6348834
-0.28534892 0.37605777 -1.6354444
-0.27537286 0.37491861 -1.634143
-0.26517999 0.37519503 -1.6347501
-0.25470248 0.37568 -1.6348748
-0.245452 0.375981 -1.6350501
-0.23691501 0.3773025 -1.63605
-0.13189501 0.37701499 -1.6347499
-0.12474222 0.37493554 -1.6349334
-0.11490665 0.37479776 -1.6343112
-0.1057575 0.37526 -1.635025
-0.095708497 0.37504002 -1.6340625
-0.084609918 0.37629271 -1.6363093
-0.074793398 0.37592101 -1.6355702
-0.065555751 0.37480751 -1.6351
-0.054899145 0.37534574 -1.6359859
-0.044892445 0.37571445 -1.6356889
-0.034669288 0.37480861 -1.6336429
-0.025292287 0.37592858 -1.6373715
-0.01506478 0.37562221 -1.6352888
-0.0044263001 0.37545124 -1.6358874
0.0049609169 0.37533164 -1.6353334
0.015293166 0.37506002 -1.6355166
0.025149126 0.37527001 -1.635075
0.035226624 0.37474 -1.634725
0.044987001 0.37566003 -1.6354169
0.054914247 0.37537748 -1.6355374
0.065213427 0.37535289 -1.6360143
0.073997997 0.37589833 -1.6364669
0.085452996 0.376185 -1.63669
0.094426297 0.37577713 -1.6367573
0.105754 0.37526402 -1.6358601
0.11508223 0.37494001 -1.6349444
0.1252325 0.37480873 -1.6350126
0.13513167 0.3752017 -1.6348
0.14483 0.37533873 -1.6353874
0.15519571 0.37515435 -1.6351572
0.16547501 0.37513626 -1.6354625
0.17520499 0.37542003 -1.6357375
0.18561144 0.37520292 -1.6353574
0.19501287 0.37532002 -1.6347287
0.203944 0.37542602 -1.6365799
0.21397999 0.37518111 -1.6360111
0.22418669 0.37495503 -1.6350667
0.23396602 0.37653598 -1.63816
0.24502499 0.37552124 -1.6361625
0.25537002 0.37507433 -1.6348287
0.26574776 0.37492552 -1.6357334
0.27511749 0.37481999 -1.6350875
0.28552717 0.37588426 -1.6371714
0.29424667 0.37617335 -1.6363667
0.30475861 0.37521717 -1.6342858
0.31501859 0.37498429 -1.6344001
0.32535335 0.37590167 -1.6364836
0.33456001 0.375265 -1.6350667
0.34399 0.37532571 -1.634743
0.35598624 0.37549627 -1.6351
0.36606333 0.37556502 -1.6350168
0.37428859 0.37548715 -1.6343429
0.384655 0.37527999 -1.6351333
0.39593834 0.37526 -1.6350334
0.40511 0.37546167 -1.6359167
0.41425574 0.37491429 -1.6341001
0.42348668 0.37604165 -1.6358001
0.80941999 0.37345999 -1.6390001
0.81714499 0.37471002 -1.6363499
0.8250829 0.37506717 -1.6347213
0.83658552 0.37506369 -1.6346363
0.84828001 0.37163001 -1.6309
-0.77353001 0.38067001 -1.6395
-0.69176 0.38071001 -1.6397001
-0.68507338 0.38040003 -1.6383667
-0.67922002 0.38058001 -1.6391
-0.64718997 0.380595 -1.63915
0.81228501 0.38459998 -1.6382
0.82547557 0.38253227 -1.6346445
0.86300337 0.35604 -1.6221335
-0.77059495 0.36843997 -1.6206501
-0.76528502 0.36895499 -1.6229
-0.75564998 0.36969 -1.6224
-0.74571335 0.36942667 -1.6213001
-0.73499167 0.36901504 -1.6219167
-0.72352666 0.36925 -1.6204667
-0.71518672 0.36976334 -1.6227335
-0.69503999 0.36970249 -1.622425
-0.67365503 0.36969 -1.6224
-0.66745996 0.36961001 -1.6221
-0.65434998 0.36990333 -1.6233333
-0.64490002 0.36963999 -1.6222
-0.63205004 0.36917335 -1.6226
-0.62502247 0.36942253 -1.6231
-0.61360002 0.36963999 -1.6222
-0.60540503 0.36862502 -1.6214666
-0.5941267 0.36944336 -1.6213334
-0.58575332 0.36973667 -1.6226001
-0.57496005 0.36922401 -1.6218799
-0.54806 0.36984 -1.6231
-0.53841001 0.36746001 -1.6201
-0.52697998 0.36750001 -1.6202
-0.51299667 0.36828336 -1.6212001
-0.5060125 0.36866501 -1.62165
-0.4947525 0.36835253 -1.6221499
-0.48386249 0.36811501 -1.6210999
-0.4758583 0.36899003 -1.6218333
-0.46348 0.36774501 -1.62135
-0.45565337 0.36785334 -1.6218333
-0.44498751 0.36854249 -1.622975
-0.43548 0.36770499 -1.6212001
-0.42443499 0.36778501 -1.621525
-0.41510665 0.36981004 -1.6229
-0.40503749 0.3677775 -1.6215
-0.3942225 0.36803001 -1.6226001
-0.38357669 0.36846003 -1.6219667
-0.37555751 0.36872 -1.621875
-0.36510333 0.36769003 -1.6210999
-0.35557249 0.367735 -1.6213
-0.3449125 0.36807251 -1.6227999
-0.33524999 0.36789334 -1.6220334
-0.3258175 0.36800751 -1.622475
-0.3149775 0.368025 -1.62255
-0.30434501 0.36835501 -1.624025
-0.29475334 0.36813003 -1.6230668
-0.28399333 0.36821002 -1.6234
-0.27469248 0.36845499 -1.624475
-0.26229 0.36787999 -1.6219
-0.25564751 0.36803001 -1.622625
-0.24488001 0.36793751 -1.622175
-0.2348475 0.36838502 -1.622275
-0.13160001 0.36984 -1.6231
-0.12405668 0.36757669 -1.6230501
-0.1143375 0.36845249 -1.62445
-0.10501334 0.36793333 -1.6222
-0.095717996 0.36831 -1.6238
-0.084309995 0.36740202 -1.62132
-0.074437007 0.36849001 -1.6246251
-0.065166667 0.3680867 -1.6228666
-0.055832997 0.36835003 -1.6240001
-0.045187499 0.36833 -1.62395
-0.034514252 0.36846501 -1.6245251
-0.025178999 0.36852667 -1.6248001
-0.015920751 0.3682175 -1.623425
-0.0047491575 0.36729148 -1.6225144
0.0045922203 0.36781597 -1.6231202
0.014837334 0.36843333 -1.6243668
0.025052335 0.36780334 -1.6240667
0.03492675 0.368485 -1.6245999
0.045658998 0.36849248 -1.6246251
0.055142 0.36869335 -1.6255335
0.064211749 0.36796999 -1.6223249
0.075339794 0.367872 -1.6234
0.086035006 0.367414 -1.6228399
0.094472431 0.36743718 -1.6231428
0.10446716 0.36737287 -1.6228856
0.11551334 0.36757001 -1.6230333
0.12511668 0.36748832 -1.6239002
0.13460501 0.36745501 -1.62375
0.14517401 0.36787 -1.6234
0.1543825 0.36788499 -1.623825
0.164685 0.36834753 -1.6240001
0.17611714 0.36752716 -1.6235429
0.18505499 0.36770499 -1.6230249
0.1946325 0.368045 -1.6226499
0.20425001 0.367374 -1.62266
0.21379399 0.36785802 -1.62332
0.224218 0.36774001 -1.6227801
0.23612499 0.36762249 -1.62265
0.24554501 0.36761165 -1.6232333
0.25360751 0.36766499 -1.622825
0.26436749 0.36830249 -1.623775
0.27540749 0.36811 -1.622925
0.28566802 0.367322 -1.62242
0.29522333 0.36735171 -1.6233166
0.30369502 0.3675867 -1.6231165
0.31578001 0.36813602 -1.62454
0.32501334 0.36806667 -1.6227669
0.33623168 0.36771834 -1.6236666
0.34483001 0.3670617 -1.6220168
0.35433003 0.36742398 -1.62288
0.36384249 0.36803249 -1.6226
0.37325001 0.36726803 -1.6222
0.38481 0.36844751 -1.6244249
0.39472669 0.36821002 -1.6234
0.40448749 0.36785498 -1.6218251
0.41536251 0.36782253 -1.6235249
0.42260337 0.36673665 -1.6217999
0.83450001 0.36651498 -1.6289999
0.84557009 0.36386418 -1.6266249
0.85512918 0.36489916 -1.6249335
0.8610667 0.36798334 -1.6223334
-0.77169001 0.37142998 -1.6262
-0.76469749 0.37192249 -1.6264499
-0.75417995 0.37222004 -1.6258334
-0.74540329 0.37257668 -1.6274002
-0.73482007 0.37195334 -1.6246667
-0.72495747 0.3725225 -1.6271501
-0.71465003 0.37284335 -1.6285334
-0.70580834 0.3714 -1.62605
-0.69569004 0.37260336 -1.6274999
-0.68482864 0.37144288 -1.6256858
-0.6756025 0.37208 -1.627125
-0.66434002 0.37182 -1.62714
-0.65629673 0.37275001 -1.6281667
-0.64441603 0.37216201 -1.62708
-0.63506502 0.37176752 -1.6257499
-0.6248275 0.3728025 -1.6283751
-0.61685997 0.37163502 -1.6271
-0.60398 0.37013 -1.6243
-0.59520507 0.37284249 -1.6285499
-0.58502001 0.37292999 -1.6288999
-0.57485247 0.373005 -1.629225
-0.56493247 0.37050751 -1.626
-0.55338401 0.371454 -1.6270599
-0.54492253 0.371575 -1.6268251
-0.53520721 0.37112147 -1.6254001
-0.52538145 0.37148005 -1.626943
-0.51556504 0.370285 -1.625
-0.50445497 0.3717975 -1.625875
-0.49489832 0.37172997 -1.6275166
-0.48625499 0.37163496 -1.6270751
-0.47516665 0.37268335 -1.6278334
-0.46593499 0.37131333 -1.62695
-0.45376748 0.37120751 -1.6271501
-0.44532332 0.37031335 -1.6251
-0.43491 0.37015003 -1.6244
-0.42554247 0.3705475 -1.626175
-0.41523501 0.37309498 -1.62965
-0.40635601 0.37087598 -1.6260601
-0.39508998 0.37063 -1.62655
-0.38681501 0.37064499 -1.6266
-0.37416002 0.37201199 -1.6279801
-0.36549801 0.370828 -1.6258601
-0.35374749 0.37096998 -1.6260749
-0.34588602 0.37098399 -1.6265401
-0.33458999 0.37051001 -1.6259999
-0.32482001 0.37017 -1.6245002
-0.31487602 0.37109199 -1.6270199
-0.30478752 0.37069002 -1.626775
-0.29522002 0.37056336 -1.6262335
-0.28593498 0.37089998 -1.627725
-0.27498001 0.37063253 -1.6265249
-0.26405001 0.370345 -1.625275
-0.25466335 0.37042332 -1.6256001
-0.24530999 0.37055498 -1.6261749
-0.23603335 0.37226337 -1.6272
-0.13176 0.37307 -1.6295
-0.12640001 0.37120003 -1.6290333
-0.11304667 0.37094665 -1.6279
-0.10437249 0.37106499 -1.6265
-0.095710754 0.37081748 -1.6273501
-0.085046001 0.37097248 -1.6280251
-0.074386254 0.37089249 -1.62765
-0.065046333 0.37096667 -1.628
-0.05568175 0.37119499 -1.629025
-0.044985499 0.37129 -1.6294249
-0.034352999 0.37097999 -1.6280501
-0.025021335 0.37088665 -1.6276667
-0.01565275 0.37095001 -1.62795
-0.0049774246 0.37086749 -1.627575
0.0057363752 0.37088501 -1.62765
0.015129333 0.37094331 -1.6279
0.02458475 0.37113503 -1.62875
0.035819333 0.37124333 -1.6292
0.044004999 0.3714025 -1.627975
0.054173749 0.37116 -1.62885
0.064761251 0.37075251 -1.62705
0.075881802 0.37120801 -1.6274999
0.085058004 0.37085998 -1.6275001
0.094600499 0.37099499 -1.6280999
0.1054275 0.37096 -1.627975
0.11363 0.37105 -1.6284
0.12584001 0.37100333 -1.6281667
0.1352825 0.37085998 -1.627525
0.14490668 0.37096 -1.6279668
0.1542875 0.3706975 -1.626825
0.16422334 0.37115335 -1.6288335
0.17494667 0.37081334 -1.6273334
0.1848125 0.371095 -1.6285501
0.19547749 0.37064749 -1.6266
0.20557001 0.37111998 -1.6286668
0.2167 0.37114334 -1.6288002
0.22477001 0.37084669 -1.6274667
0.23465833 0.37154001 -1.6279668
0.24442002 0.37096334 -1.6279666
0.2544575 0.37118 -1.62895
0.26569501 0.37116501 -1.62885
0.27706999 0.37124503 -1.6292
0.28489 0.37064001 -1.626575
0.29567 0.37156001 -1.62752
0.3049075 0.37075999 -1.627075
0.31524333 0.37105 -1.6283667
0.32476601 0.37120399 -1.62752
0.33497 0.37076002 -1.6271
0.345038 0.37085402 -1.62596
0.35482001 0.37048668 -1.6259
0.36307502 0.37110752 -1.626675
0.3743825 0.37096751 -1.628
0.38453498 0.37132251 -1.62765
0.39439252 0.37061751 -1.6264751
0.40466666 0.37059337 -1.6264
0.41392002 0.37085003 -1.6274667
0.42244333 0.37115332 -1.6262667
0.82759804 0.37633801 -1.62836
0.83596915 0.37557912 -1.6244999
0.84550917 0.37514168 -1.6270335
0.85511398 0.37412301 -1.62331
0.86106998 0.37125 -1.6216
0.016321 0.35855001 -1.6104
0.13903999 0.35852 -1.6102999
0.23593 0.35864002 -1.6108501
0.87563002 0.35951501 -1.6147499
0.88221002 0.35698 -1.6109999
-0.77142 0.3633 -1.6164
-0.76572752 0.36480251 -1.613875
-0.75545114 0.36513332 -1.6147
-0.74369502 0.36516666 -1.6136332
-0.73598999 0.36481249 -1.6138999
-0.72534376 0.36493251 -1.6144251
-0.71470863 0.36508146 -1.6148143
-0.70576328 0.36495003 -1.6147112
-0.69380248 0.36612749 -1.616025
-0.6858843 0.36510575 -1.6149572
-0.67509377 0.36546874 -1.614975
-0.66451997 0.36487752 -1.6151
-0.65610999 0.36543876 -1.6166624
-0.64528668 0.36563 -1.6156834
-0.63600671 0.36542499 -1.6148002
-0.62548333 0.36539668 -1.6158667
-0.61525428 0.36608002 -1.6171573
-0.60470754 0.36447251 -1.6142499
-0.59477246 0.36553749 -1.6162
-0.58460295 0.36584002 -1.6171572
-0.57522005 0.365522 -1.6159401
-0.56448728 0.36475542 -1.6148182
-0.55525434 0.3653914 -1.6161858
-0.54532367 0.36459547 -1.6147547
-0.53529775 0.36454779 -1.6153779
-0.52516007 0.36449781 -1.6143223
-0.51611745 0.36426747 -1.6151625
-0.50506723 0.36434001 -1.6136429
-0.49507499 0.36415249 -1.61465
-0.48470336 0.36409169 -1.615
-0.47441 0.36372998 -1.6136999
-0.4659034 0.3646456 -1.6158111
-0.45419854 0.36396435 -1.6140858
-0.44570571 0.36398 -1.6152142
-0.43565449 0.3642711 -1.6149555
-0.42565376 0.36383 -1.6150626
-0.414992 0.365022 -1.61667
-0.40476331 0.36266112 -1.6127666
-0.39576223 0.36351222 -1.6149
-0.38476378 0.36426249 -1.6151124
-0.37555227 0.36442 -1.6156111
-0.36526498 0.3638162 -1.6150125
-0.35563168 0.36452001 -1.6169
-0.34480712 0.36338001 -1.6146715
-0.33524749 0.36361003 -1.6141125
-0.32464001 0.36350715 -1.6141715
-0.31566 0.36344776 -1.6145889
-0.30491129 0.36322626 -1.6142374
-0.29510501 0.36407623 -1.6161625
-0.2852082 0.36327457 -1.6143092
-0.2749778 0.36291221 -1.6138666
-0.265614 0.36458501 -1.6161999
-0.2550191 0.36290184 -1.614
-0.2443825 0.36349002 -1.614475
-0.23605874 0.36330122 -1.6145749
-0.131455 0.36599499 -1.61725
-0.12566668 0.36355168 -1.6150501
-0.11386637 0.36335096 -1.615991
-0.10534715 0.36353573 -1.6153429
-0.09536773 0.36287183 -1.6138637
-0.08501289 0.36326665 -1.6154556
-0.075022005 0.36371773 -1.6158222
-0.064024404 0.36302602 -1.61522
-0.055429496 0.36367503 -1.6153125
-0.045178276 0.36303818 -1.6145999
-0.034966834 0.36286837 -1.6145167
-0.024368582 0.36294752 -1.6148751
-0.014628398 0.36256 -1.6139001
-0.0059323367 0.36217627 -1.6132874
0.0052923178 0.3633489 -1.6158221
0.015084091 0.3632409 -1.6155002
0.025973873 0.36242372 -1.6144125
0.034423556 0.36324888 -1.6145664
0.045128219 0.36355999 -1.615111
0.055227183 0.36317182 -1.6151999
0.065588728 0.36272547 -1.6145637
0.074811116 0.36306223 -1.6153998
0.084119603 0.362519 -1.61446
0.095328882 0.36195624 -1.614175
0.10545126 0.36225125 -1.6145624
0.11462222 0.36264002 -1.6143445
0.12479375 0.36179125 -1.6134499
0.135325 0.36141622 -1.6117749
0.14520332 0.36321336 -1.6160444
0.155233 0.36279902 -1.6142101
0.16473444 0.36272225 -1.6138667
0.17452112 0.3623344 -1.6146221
0.18536858 0.36412713 -1.6169143
0.19522274 0.36269093 -1.6144
0.205806 0.36415002 -1.6171999
0.21524332 0.3626278 -1.6142777
0.22527801 0.36282799 -1.6143398
0.23484111 0.36308554 -1.6154779
0.24420875 0.36247623 -1.6146249
0.25655377 0.36357501 -1.616725
0.26533636 0.36322546 -1.6154364
0.275116 0.36274901 -1.61474
0.28411999 0.36264431 -1.6145713
0.29403001 0.36205751 -1.6127625
0.30579498 0.36265498 -1.6145
0.31429285 0.36305147 -1.6142572
0.32483903 0.36304101 -1.6138
0.33538285 0.36201862 -1.6128715
0.34542835 0.36269838 -1.6149833
0.35581002 0.36332202 -1.615
0.36411667 0.36375666 -1.6147332
0.3757157 0.3628343 -1.6143714
0.3841311 0.36328778 -1.6155335
0.39478555 0.36383891 -1.6163443
0.40518329 0.36286333 -1.614489
0.41398877 0.36250624 -1.61385
0.4227075 0.36309999 -1.615525
0.86626166 0.36550832 -1.6163
0.87111998 0.36956 -1.6142
0.83828998 0.37143001 -1.6144
0.84886003 0.37413001 -1.6191
0.85575336 0.37318501 -1.6185001
0.86601663 0.37314004 -1.6171668
-0.77108002 0.35758501 -1.60605
-0.76541752 0.3579275 -1.603775
-0.75386804 0.35827604 -1.6030401
-0.74480999 0.358096 -1.60378
-0.73613399 0.35810202 -1.60376
-0.72398996 0.35901001 -1.604825
-0.71378005 0.3582167 -1.6038001
-0.70583999 0.35805833 -1.6030834
-0.69456005 0.35880336 -1.6039
-0.68430001 0.35817 -1.6029501
-0.6756025 0.35919499 -1.6056252
-0.66508001 0.35918999 -1.6056335
-0.65604001 0.35915336 -1.6054667
-0.645845 0.35929751 -1.6060749
-0.63563168 0.35768837 -1.6027001
-0.62562335 0.35869667 -1.6034
-0.61461145 0.3579343 -1.6032431
-0.60522002 0.35796165 -1.6039333
-0.59493375 0.3579075 -1.6036874
-0.58506 0.35700625 -1.6024874
-0.57549798 0.35837203 -1.60348
-0.56559002 0.35794502 -1.6038334
-0.55479872 0.35808876 -1.6045001
-0.54506004 0.35734716 -1.6028
-0.53490877 0.35815874 -1.604825
-0.52497339 0.35815835 -1.6048167
-0.51514995 0.35822502 -1.6051124
-0.50501001 0.35839003 -1.6058
-0.49550575 0.35754001 -1.6047572
-0.4846386 0.35817856 -1.6043572
-0.47550428 0.35832569 -1.6061002
-0.46520573 0.35824859 -1.6046573
-0.45500749 0.35823253 -1.6051376
-0.44394666 0.35753 -1.6032667
-0.43508005 0.35854429 -1.6059858
-0.42560503 0.35753664 -1.6032833
-0.41423145 0.35787001 -1.6040571
-0.40466431 0.35761717 -1.6051
-0.3949025 0.35685 -1.6036751
-0.38488445 0.35796446 -1.605189
-0.37488142 0.3584986 -1.6057715
-0.36479113 0.35735667 -1.6041555
-0.35572562 0.3580111 -1.6054
-0.34500599 0.357416 -1.60376
-0.33407876 0.35810876 -1.6055375
-0.3261686 0.35760432 -1.6050574
-0.31459862 0.35747856 -1.6044714
-0.30464002 0.35849717 -1.6068858
-0.29485834 0.35822666 -1.6051
-0.28660432 0.35674575 -1.6033429
-0.275594 0.357584 -1.6045201
-0.26421833 0.35788667 -1.6048834
-0.25475499 0.3565675 -1.603375
-0.24579751 0.35804 -1.6061625
-0.23418835 0.35785669 -1.6047333
-0.13108 0.35758999 -1.60225
-0.124578 0.35768002 -1.6049302
-0.11451665 0.35657221 -1.6040223
-0.10453429 0.35674289 -1.6044428
-0.096518405 0.35688803 -1.6044401
-0.08602301 0.35726997 -1.60616
-0.074771099 0.35685799 -1.60429
-0.064298168 0.35650334 -1.6037167
-0.054394752 0.35800749 -1.6060749
-0.046368223 0.35662556 -1.6042668
-0.036316335 0.35656834 -1.6040167
-0.024829499 0.35762501 -1.606275
-0.014640401 0.35700598 -1.6049999
-0.0045261341 0.35604003 -1.6034571
0.0043497584 0.35686252 -1.6046751
0.014864249 0.35658249 -1.6043875
0.024762876 0.35683122 -1.6045876
0.034251999 0.35609856 -1.6037145
0.045051143 0.35758716 -1.606043
0.054381143 0.35706145 -1.6047857
0.064684875 0.35626122 -1.603925
0.074498832 0.35670504 -1.6046333
0.085296579 0.35606 -1.6035429
0.094508715 0.35644713 -1.6042143
0.10570501 0.35695335 -1.6057667
0.11539445 0.3560189 -1.6040778
0.124055 0.35685751 -1.6046751
0.13368857 0.35579574 -1.6034286
0.14484125 0.35644624 -1.604725
0.15579399 0.35649601 -1.6042
0.16366334 0.35666499 -1.6044501
0.17548667 0.35679334 -1.6050333
0.18523778 0.35674891 -1.6048222
0.19410001 0.35635599 -1.6035601
0.20567001 0.35766113 -1.6055332
0.21510001 0.35578778 -1.6030444
0.22444165 0.355975 -1.6026
0.23456001 0.35622668 -1.6050334
0.24469715 0.35610285 -1.6037287
0.25440702 0.35707501 -1.6060301
0.26424146 0.3565186 -1.6045145
0.27482665 0.35744667 -1.6054333
0.28544286 0.35697573 -1.6066002
0.29541123 0.356345 -1.6043
0.30498835 0.35615 -1.6034001
0.31503111 0.35731331 -1.6056778
0.32574001 0.35676503 -1.6036334
0.3345829 0.35640004 -1.604
0.3449617 0.35753331 -1.6045334
0.35520625 0.35825875 -1.6052625
0.36482334 0.35675666 -1.6031667
0.374286 0.35766599 -1.60492
0.38667002 0.356484 -1.6041602
0.39528602 0.35727602 -1.60466
0.40498334 0.35615003 -1.6034167
0.41477144 0.35616288 -1.6039999
0.4229033 0.35716331 -1.6028999
-0.7643134 0.3624 -1.6075001
-0.75541997 0.36161 -1.60885
-0.74373245 0.36122501 -1.607175
-0.73364997 0.36163002 -1.6090001
-0.72290003 0.36167002 -1.6091501
-0.71649504 0.36153501 -1.60855
-0.70278001 0.36158001 -1.6087
-0.69581002 0.36205998 -1.60794
-0.68605673 0.36130333 -1.6075001
-0.67533338 0.36150667 -1.6084001
-0.66833997 0.36181998 -1.6098
-0.65308499 0.36166501 -1.6091
-0.64496338 0.3612667 -1.6073002
-0.63441253 0.36116752 -1.6069
-0.62477005 0.36160669 -1.6088667
-0.61468744 0.36175001 -1.6095001
-0.60408336 0.36154336 -1.6085666
-0.59566498 0.36177 -1.6096001
-0.58498502 0.36144251 -1.608125
-0.57479 0.36140999 -1.608
-0.56953001 0.36177 -1.6095999
-0.55358499 0.36170501 -1.6092999
-0.52344 0.36158001 -1.6088001
-0.50281334 0.36116001 -1.6094
-0.49660501 0.3608 -1.60905
-0.48425999 0.36186001 -1.61
-0.45888999 0.36166 -1.6091
-0.4479 0.36017001 -1.61
-0.42159501 0.36010998 -1.60975
-0.35203999 0.36175001 -1.6095001
-0.34573334 0.36068666 -1.6097667
-0.32508999 0.36181 -1.6098
-0.31690001 0.36002001 -1.6093
-0.27678001 0.36008 -1.6095999
-0.26477498 0.360055 -1.6094501
-0.2369 0.36013001 -1.6098
-0.13119 0.36109999 -1.6066
-0.10494 0.36001 -1.6093
-0.099676996 0.36001 -1.6093
-0.087841004 0.36001 -1.6093
-0.070727997 0.36017999 -1.61
-0.068097003 0.36017001 -1.61
-0.057572 0.36012 -1.6098
0.0057247002 0.36012 -1.6098
0.037450999 0.36002001 -1.6093
0.045434002 0.36008 -1.6095999
0.15252 0.36012 -1.6098
0.16337 0.36015999 -1.61
0.185045 0.36008999 -1.6095999
0.20149 0.36017001 -1.61
0.22619 0.36017999 -1.61
0.2481 0.36001 -1.6093
0.28441 0.36012 -1.6098
0.29567999 0.36017001 -1.61
0.31248999 0.36008999 -1.6097
0.32670999 0.36014 -1.6099
0.38687 0.36006999 -1.6095001
0.41841334 0.3633967 -1.6070335
0.42421001 0.36126 -1.6073
0.78294998 0.36320999 -1.6013
0.86734998 0.36660001 -1.6088001
0.88485003 0.36621001 -1.6071
-0.60009003 0.34907001 -1.5904
-0.50913 0.34900999 -1.5901
-0.46366 0.349235 -1.59115
-0.45116001 0.34911999 -1.5906
-0.44010001 0.34900999 -1.5901
-0.43520331 0.34954333 -1.5925667
-0.42679501 0.34933001 -1.59155
-0.37814999 0.34939 -1.5918
-0.36443999 0.34906 -1.5903
-0.34496331 0.34920001 -1.5909667
-0.33653 0.34920999 -1.5910499
-0.32469332 0.34939 -1.5918667
-0.31651002 0.34908003 -1.5904334
-0.30853999 0.34904 -1.5901999
-0.29672998 0.34917 -1.59085
-0.28517002 0.34970999 -1.5933001
-0.27577499 0.349415 -1.5919499
-0.26921999 0.34948 -1.5922
-0.25482503 0.34960002 -1.5928
-0.24144 0.34903002 -1.5901999
-0.12172 0.349415 -1.5919499
-0.11393 0.34949002 -1.592325
-0.10484667 0.34974334 -1.5934668
-0.095744997 0.34951496 -1.5924
-0.086671665 0.34902334 -1.5901999
-0.074949503 0.34974751 -1.5934501
-0.064563498 0.34959999 -1.5928001
-0.05419375 0.34938249 -1.5918001
-0.045115333 0.34926999 -1.5913
-0.035555668 0.34940332 -1.5918667
-0.025548249 0.34957749 -1.5927
-0.015222499 0.34919 -1.59095
-0.0047387877 0.34943751 -1.5920751
0.0057500498 0.34961 -1.59285
0.015612001 0.34919333 -1.5909333
0.025318002 0.34952998 -1.5924667
0.035851002 0.34969002 -1.5932333
0.044779249 0.34913999 -1.5906999
0.055459749 0.34955999 -1.5926249
0.066063501 0.34975001 -1.5935
0.075283669 0.34976 -1.5935333
0.084308505 0.34940749 -1.591925
0.095072746 0.3497625 -1.593575
0.10524 0.34920803 -1.5925601
0.11336 0.34939498 -1.59185
0.12367666 0.34962004 -1.5929
0.134655 0.34947503 -1.59225
0.14543751 0.34965003 -1.593075
0.15472001 0.34957334 -1.5926666
0.161525 0.34972501 -1.5933499
0.17527001 0.34906334 -1.5929
0.18621668 0.34981334 -1.5938001
0.19481668 0.34938666 -1.5918001
0.204476 0.34900001 -1.5916399
0.21960001 0.34983 -1.5939
0.22508334 0.34987003 -1.5940335
0.23410501 0.3489725 -1.59185
0.24526751 0.34960002 -1.5928
0.25500667 0.34974003 -1.5934668
0.26455 0.34966999 -1.593125
0.27406001 0.34955335 -1.5926001
0.2859025 0.34922749 -1.593025
0.29510748 0.349785 -1.59365
0.30308998 0.34949499 -1.5922999
0.315005 0.34854668 -1.59185
0.32363001 0.34917 -1.5908
0.33539337 0.34956336 -1.5926332
0.34187999 0.34915501 -1.59075
0.35413501 0.34981999 -1.5938001
0.36569667 0.34962666 -1.5929
0.37475333 0.34931001 -1.5915
0.38503751 0.34948751 -1.592325
0.39477 0.34927332 -1.5913334
0.40162498 0.34904999 -1.5903
-0.76411837 0.35283166 -1.5947332
-0.75511998 0.35295752 -1.5937375
-0.74513745 0.35241127 -1.5931625
-0.73419178 0.3528617 -1.5936167
-0.72539866 0.35436001 -1.5958858
-0.71560436 0.35381284 -1.5944999
-0.7048943 0.35298431 -1.5950857
-0.69555253 0.35344374 -1.5940499
-0.68549562 0.35355446 -1.5946335
-0.67490333 0.35342225 -1.5948999
-0.66499102 0.35335001 -1.5945801
-0.65445703 0.35360798 -1.5949901
-0.64449 0.35350797 -1.5952899
-0.63450712 0.35300002 -1.5951428
-0.62516624 0.35358876 -1.5947126
-0.61568004 0.35384834 -1.5968332
-0.60586333 0.35237336 -1.5939335
-0.59416002 0.35296401 -1.59436
-0.58529204 0.351868 -1.5939201
-0.57458001 0.35385144 -1.5957428
-0.56458378 0.35266 -1.5942875
-0.55529714 0.35288575 -1.5957143
-0.54461169 0.35207999 -1.5938667
-0.53506148 0.35262001 -1.5945144
-0.52384251 0.3528775 -1.5943251
-0.51493752 0.35265753 -1.595225
-0.50443721 0.35286146 -1.5956142
-0.49449167 0.35245165 -1.5955667
-0.48466858 0.35265574 -1.5946858
-0.47475499 0.35287747 -1.5962125
-0.46407714 0.35241002 -1.5946572
-0.4548043 0.35315287 -1.5969287
-0.44489002 0.35248145 -1.5949572
-0.43454877 0.35262501 -1.5950874
-0.42512664 0.35276335 -1.5957334
-0.41530877 0.3524875 -1.5944624
-0.40517718 0.35253575 -1.5952144
-0.39397001 0.3524875 -1.59635
-0.38570997 0.35245666 -1.5956
-0.37473249 0.3525075 -1.5945375
-0.365816 0.35230002 -1.5943601
-0.35526001 0.35253 -1.5959166
-0.3455025 0.35287875 -1.5962374
-0.33510002 0.35238859 -1.594543
-0.32352287 0.35271719 -1.5960287
-0.31424403 0.35267001 -1.59604
-0.30546251 0.35281 -1.5959251
-0.29492125 0.35292876 -1.5964625
-0.28411198 0.35285002 -1.59688
-0.27561432 0.35244003 -1.5947858
-0.2658025 0.35288501 -1.5962374
-0.25556716 0.35302144 -1.5974144
-0.24537857 0.35296714 -1.5971859
-0.23480573 0.35307285 -1.5965716
-0.22984999 0.35108 -1.5919
-0.130955 0.353185 -1.5976
-0.12442668 0.35287505 -1.5974667
-0.1139825 0.35212249 -1.5966001
-0.10486334 0.35214335 -1.5967001
-0.095183007 0.35301146 -1.5973856
-0.084766857 0.35269433 -1.5959287
-0.07490325 0.35199749 -1.5960499
-0.064434506 0.35303003 -1.5981998
-0.054562856 0.35309857 -1.5977714
-0.044939667 0.35194668 -1.5958002
-0.034894168 0.35272002 -1.5967834
-0.025290001 0.35313749 -1.5974001
-0.014652715 0.35298717 -1.5972716
-0.0044445847 0.35206249 -1.596375
0.0060585747 0.35218748 -1.5968999
0.015122 0.35188335 -1.5955
0.024135601 0.35248399 -1.59672
0.035832338 0.352575 -1.5974001
0.044423334 0.35245499 -1.5955666
0.055444747 0.35292 -1.598325
0.064026996 0.35254502 -1.5985249
0.075443335 0.35301667 -1.5981333
0.085090756 0.35240251 -1.59785
0.096323393 0.35245201 -1.59658
0.1043525 0.35286498 -1.5980749
0.11383667 0.3524 -1.5978668
0.12558626 0.35278624 -1.5977
0.1368725 0.351915 -1.59755
0.14607501 0.35211 -1.596525
0.15400998 0.35296801 -1.5974
0.16620624 0.35213625 -1.596675
0.17546573 0.35195571 -1.596943
0.1853075 0.35202751 -1.598075
0.19560334 0.35288167 -1.5975001
0.204468 0.35238999 -1.59628
0.21481 0.35112998 -1.5967
0.2245525 0.35231 -1.59745
0.23593199 0.35162804 -1.5958999
0.24511999 0.35236001 -1.5976667
0.25457001 0.35262334 -1.5988667
0.264725 0.35244501 -1.5961751
0.27436125 0.35341623 -1.5986626
0.2851325 0.35233998 -1.5976
0.29441667 0.35196671 -1.5958999
0.30452001 0.352245 -1.59715
0.31542668 0.35201335 -1.5961001
0.3239575 0.35249501 -1.596375
0.33500001 0.35245404 -1.5965799
0.34545168 0.35312837 -1.5973667
0.35493001 0.352395 -1.5959375
0.36567801 0.35285997 -1.59842
0.3748171 0.35304007 -1.5975144
0.383692 0.35294601 -1.59728
0.39533001 0.35218 -1.59685
0.40542334 0.3521567 -1.5967667
0.4153975 0.35203251 -1.5962001
0.42418405 0.35215199 -1.5936999
0.42061001 0.36052999 -1.5968
-0.77174997 0.34468001 -1.5855
-0.76425433 0.34653285 -1.5842429
-0.75446802 0.34634802 -1.58258
-0.74563503 0.34742999 -1.5854334
-0.73562336 0.34677336 -1.5837334
-0.72560662 0.34791002 -1.5851001
-0.71416998 0.34697503 -1.5833668
-0.70430672 0.34787667 -1.5849667
-0.69427752 0.34735 -1.58445
-0.68478572 0.34685719 -1.5835716
-0.67499745 0.34703001 -1.583025
-0.66494 0.34761667 -1.5837667
-0.65434003 0.34731802 -1.5839599
-0.64490002 0.34656575 -1.5833286
-0.63510168 0.34657833 -1.58285
-0.62580752 0.34649 -1.5833875
-0.61454284 0.34682712 -1.5834429
-0.60434002 0.34667429 -1.5838429
-0.59412503 0.34722167 -1.5857834
-0.58542335 0.34716672 -1.5855335
-0.57498372 0.34688124 -1.5842249
-0.56452 0.34684286 -1.5846144
-0.55524504 0.34698665 -1.5847
-0.54465228 0.34633443 -1.5830001
-0.53482431 0.34719285 -1.5851001
-0.52529997 0.34630251 -1.5834876
-0.51492602 0.34641102 -1.58436
-0.50416005 0.34678602 -1.5845801
-0.4946875 0.34669626 -1.5834
-0.48470202 0.34626302 -1.5844201
-0.47501999 0.34616777 -1.5839111
-0.46624124 0.34582251 -1.5841374
-0.45579335 0.34715503 -1.5855167
-0.44516125 0.3465175 -1.5844625
-0.43434402 0.34579399 -1.58462
-0.42553434 0.34614858 -1.5846858
-0.4151772 0.34690145 -1.5848858
-0.40505499 0.34711501 -1.5853
-0.39513859 0.34752285 -1.5866286
-0.38519919 0.34618336 -1.5848083
-0.37479505 0.34580702 -1.5846201
-0.36436102 0.34594598 -1.58448
-0.35437751 0.34738624 -1.5865376
-0.34483501 0.34529501 -1.5836126
-0.33479002 0.34536666 -1.5836222
-0.32508668 0.34535667 -1.5835888
-0.31436625 0.34589127 -1.5853875
-0.304986 0.346313 -1.5861801
-0.29531777 0.34550443 -1.5842556
-0.28574109 0.34558114 -1.5845888
-0.27543801 0.34550202 -1.58328
-0.26407272 0.34614089 -1.5853182
-0.25566 0.34537002 -1.58416
-0.24558714 0.34653005 -1.5853429
-0.23524545 0.34591818 -1.5843
-0.22909501 0.34685999 -1.5841501
-0.13062499 0.34685999 -1.58415
-0.12469699 0.34591201 -1.5851101
-0.11512001 0.34526667 -1.5844334
-0.10608251 0.34527501 -1.5844624
-0.0952399 0.34474701 -1.58429
-0.084986225 0.34571111 -1.5852
-0.074996457 0.34422454 -1.583382
-0.064770497 0.34517998 -1.5840499
-0.055265501 0.34567499 -1.58505
-0.044075128 0.34531879 -1.5846875
-0.035326429 0.34600857 -1.5862
-0.025953999 0.34537125 -1.5849001
-0.015478099 0.34629899 -1.5868901
-0.0052558999 0.34525999 -1.5844251
0.0049778884 0.34501666 -1.5845333
0.016140729 0.34520453 -1.5851364
0.025106112 0.34449223 -1.5837666
0.035004251 0.34527996 -1.5844877
0.044835143 0.34573287 -1.5860428
0.054921776 0.34488887 -1.5839444
0.064520702 0.34490001 -1.5849999
0.07561937 0.34556872 -1.5858374
0.085362576 0.34514576 -1.5844142
0.094564423 0.34570715 -1.5859429
0.10476 0.34556001 -1.5863286
0.11556601 0.34556505 -1.58577
0.12516887 0.34496778 -1.5859667
0.13480636 0.34528551 -1.5854819
0.14457572 0.34549719 -1.5849717
0.15459779 0.34490889 -1.5840334
0.1651375 0.34445333 -1.5844252
0.17434125 0.34430629 -1.5837624
0.18515858 0.34619716 -1.5881715
0.19471374 0.34542 -1.5851375
0.20547573 0.34467858 -1.5844142
0.21480727 0.34469908 -1.5848819
0.22509301 0.344733 -1.5849701
0.233715 0.34453252 -1.5847751
0.24449286 0.34605855 -1.587543
0.25438249 0.3455475 -1.58575
0.26456574 0.34529004 -1.5850857
0.27562547 0.34509635 -1.5846363
0.28564143 0.3449786 -1.5847
0.29456145 0.34507719 -1.5841144
0.30473626 0.34605002 -1.5861125
0.31624573 0.34441715 -1.585343
0.32550454 0.34616455 -1.5854365
0.33630666 0.34577668 -1.5867834
0.34509462 0.34509 -1.5844309
0.35535336 0.34530336 -1.5846167
0.36534712 0.34566861 -1.5868429
0.37458375 0.34518 -1.5849749
0.38534877 0.3454175 -1.58515
0.39482716 0.3447386 -1.5836002
0.40520403 0.34575301 -1.58438
0.41554698 0.34673601 -1.5866001
0.42422444 0.34620997 -1.5849444
-0.73703998 0.35064 -1.5899
-0.72379673 0.35014004 -1.5876
-0.7137 0.35043001 -1.58895
-0.70942998 0.35058001 -1.5896
-0.69085997 0.35034001 -1.5885
-0.68826997 0.35056001 -1.5895
-0.67606997 0.35044 -1.589
-0.65542001 0.35053 -1.5894001
-0.621665 0.35054499 -1.58945
-0.61531496 0.350225 -1.5880001
-0.60009003 0.35067001 -1.59
-0.59555995 0.35054499 -1.58945
-0.57232499 0.35036999 -1.5887001
-0.52577674 0.35049671 -1.5892334
-0.77016997 0.33939001 -1.5762
-0.76428998 0.33809999 -1.5702
-0.74312001 0.33983001 -1.5706
-0.72387666 0.33930334 -1.5706667
-0.71741998 0.33986998 -1.57075
-0.70231998 0.33983499 -1.5706
-0.69809997 0.33996999 -1.5712
-0.671 0.33818999 -1.5706
-0.66843998 0.33840001 -1.5716
-0.64488667 0.33834335 -1.5713
-0.63571 0.33809 -1.5700999
-0.62123001 0.33807001 -1.5700999
-0.61866999 0.33827001 -1.5709
-0.59430999 0.33827001 -1.57095
-0.58515668 0.33817333 -1.5705333
-0.57490748 0.33857 -1.5723751
-0.565925 0.338245 -1.57085
-0.55193996 0.33828998 -1.57105
-0.54496002 0.33829999 -1.5711
-0.53651667 0.33825669 -1.5709
-0.52406502 0.33829498 -1.5711
-0.51604247 0.33851001 -1.572075
-0.50499749 0.33851001 -1.5720501
-0.49504668 0.33826667 -1.5709333
-0.48609334 0.33840999 -1.5716
-0.47025999 0.33812001 -1.5703
-0.46539 0.338595 -1.5724499
-0.45427668 0.3383767 -1.5714668
-0.44472003 0.33830002 -1.5710999
-0.43816 0.33846 -1.5719
-0.42491335 0.33866668 -1.5728
-0.41694665 0.33875334 -1.5732001
-0.40481248 0.33867252 -1.5728251
-0.39510334 0.3382867 -1.5710334
-0.38605002 0.33855999 -1.572275
-0.37393665 0.3383767 -1.5714334
-0.36488599 0.33799601 -1.5712199
-0.35411251 0.33836746 -1.571425
-0.34503335 0.33853668 -1.5722001
-0.33546001 0.33808205 -1.57164
-0.32465002 0.33836001 -1.5729201
-0.31681752 0.33813 -1.572225
-0.30513167 0.33778667 -1.5712833
-0.29527751 0.33813751 -1.5722749
-0.28689203 0.33813402 -1.5718601
-0.27648801 0.338112 -1.5717601
-0.26544499 0.33862752 -1.57265
-0.25492999 0.33834749 -1.57135
-0.24481 0.33801123 -1.5735999
-0.23493715 0.33793288 -1.5726857
-0.22781 0.33833 -1.5712
-0.1220025 0.33816499 -1.5724
-0.1156025 0.33818498 -1.5725
-0.10600334 0.33810669 -1.5728
-0.094999008 0.33826602 -1.5724801
-0.085524246 0.33790749 -1.5731375
-0.074496999 0.33860999 -1.5740799
-0.06558986 0.33795863 -1.572843
-0.0547245 0.33916253 -1.5750999
-0.043685999 0.33815336 -1.5729833
-0.034498431 0.33783859 -1.5722716
-0.02402975 0.33864504 -1.5727249
-0.016378 0.33845502 -1.5718501
-0.0063270801 0.33826801 -1.5725001
0.0050802836 0.33810002 -1.57275
0.014511124 0.33781248 -1.5727251
0.024146 0.33856398 -1.57386
0.034527 0.3378143 -1.5721573
0.046100862 0.3381286 -1.5736287
0.056009252 0.33904001 -1.5745
0.066524602 0.338184 -1.57364
0.074877799 0.33860001 -1.57402
0.08423575 0.33767247 -1.57205
0.093916178 0.33817336 -1.5730833
0.1051975 0.33789125 -1.5730751
0.116038 0.33856604 -1.5738801
0.12596834 0.33796501 -1.5721334
0.135864 0.338126 -1.57338
0.14460124 0.33804625 -1.5738
0.15496875 0.33784124 -1.572825
0.16568501 0.33803126 -1.573725
0.1756586 0.33786717 -1.5735143
0.1845443 0.33786428 -1.5724002
0.19495624 0.33812499 -1.5741625
0.20496 0.33791718 -1.573743
0.21479376 0.33793876 -1.5732751
0.22509286 0.33838144 -1.5747857
0.23516126 0.33815497 -1.5743124
0.24561574 0.3381429 -1.5737001
0.25511 0.33787835 -1.5730333
0.26457834 0.33813 -1.5729167
0.27466801 0.33836198 -1.5729401
0.28427801 0.33787 -1.5722001
0.29443502 0.33853251 -1.572175
0.30497798 0.33818996 -1.57368
0.31402335 0.33825833 -1.5734835
0.32533997 0.3389675 -1.5742251
0.33494002 0.33887333 -1.5737667
0.34500599 0.33818799 -1.5721401
0.35429335 0.33762166 -1.5717834
0.36396399 0.33850002 -1.57358
0.375772 0.338108 -1.57174
0.38468003 0.33753499 -1.5714166
0.39361334 0.33859667 -1.5724666
0.40463802 0.33772001 -1.5715001
0.4156543 0.33790144 -1.5725572
0.42299002 0.33793664 -1.572
-0.76420665 0.34158668 -1.5762
-0.75553501 0.3417775 -1.574
-0.744708 0.34242201 -1.5750999
-0.73446399 0.34217998 -1.57548
-0.7249788 0.34349999 -1.57725
-0.71591002 0.34292799 -1.5774201
-0.70471722 0.34359285 -1.5773
-0.69453001 0.34276333 -1.5766555
-0.68486166 0.34160835 -1.5750833
-0.67460889 0.34237334 -1.5756888
-0.66541559 0.34254777 -1.5756556
-0.65571707 0.34293604 -1.5774601
-0.64478856 0.34170288 -1.5760287
-0.63443434 0.34195289 -1.5761286
-0.62512803 0.34153798 -1.5754999
-0.61521554 0.34224665 -1.5767555
-0.60431713 0.34175289 -1.5762858
-0.59445286 0.34220716 -1.5773002
-0.58410716 0.34163859 -1.575743
-0.57519668 0.34202334 -1.5770167
-0.56526279 0.34171858 -1.5750715
-0.55414003 0.34182575 -1.5755429
-0.54528499 0.34158 -1.5761833
-0.53504717 0.3422043 -1.5772859
-0.52484 0.34161836 -1.5763167
-0.51510006 0.34195334 -1.5778832
-0.50472718 0.34241 -1.5782573
-0.4946757 0.34174001 -1.5761857
-0.48609748 0.34127748 -1.575375
-0.47523004 0.34167668 -1.57665
-0.4647775 0.34079748 -1.57505
-0.4550375 0.34235248 -1.57665
-0.44558164 0.34155667 -1.5760667
-0.43611717 0.34200713 -1.5774429
-0.42368501 0.34171504 -1.5767834
